# .PCD v0.7 - Point Cloud Data file format
VERSION 0.7
FIELDS x y z
SIZE 4 4 4
TYPE F F F
COUNT 1 1 1
WIDTH 1771
HEIGHT 1
VIEWPOINT 0 0 0 1 0 0 0
POINTS 1771
DATA ascii
0.019152 1.097374 0.078513
0.019280 1.095973 0.077799
0.018833 1.094917 0.077840
0.018513 1.092456 0.077167
0.067557 1.261201 0.092888
0.053700 1.264285 0.108906
0.047742 1.263858 0.115069
0.046682 1.263061 0.115868
0.046475 1.260869 0.115184
0.046052 1.259873 0.115222
0.045843 1.257677 0.114538
0.045421 1.256679 0.114576
0.045633 1.255476 0.113854
0.045420 1.253271 0.113170
0.044997 1.252272 0.113209
0.044782 1.250062 0.112525
0.044358 1.249062 0.112564
0.044141 1.246847 0.111880
0.044348 1.245631 0.111159
0.043923 1.244629 0.111197
0.043703 1.242406 0.110514
0.043277 1.241402 0.110553
0.042427 1.239396 0.110630
0.042629 1.238170 0.109908
0.042405 1.235937 0.109226
0.041978 1.234932 0.109264
0.041552 1.233926 0.109303
0.041325 1.231687 0.108621
0.040899 1.230681 0.108659
0.040669 1.228437 0.107977
0.040242 1.227429 0.108016
0.040439 1.226189 0.107295
0.039584 1.224172 0.107372
0.039778 1.222927 0.106652
0.038922 1.220908 0.106729
0.039115 1.219659 0.106009
0.038258 1.217638 0.106087
0.038449 1.216385 0.105366
0.038020 1.215374 0.105405
0.037781 1.213106 0.104724
0.037352 1.212093 0.104763
0.037110 1.209820 0.104082
0.036680 1.208806 0.104121
0.036437 1.206527 0.103440
0.036007 1.205513 0.103479
0.036191 1.204245 0.102759
0.035330 1.202214 0.102837
0.035513 1.200942 0.102117
0.035264 1.198650 0.101437
0.034832 1.197633 0.101476
0.033970 1.195597 0.101554
0.034149 1.194317 0.100835
0.034328 1.193035 0.100116
0.033463 1.190996 0.100194
0.033031 1.189976 0.100233
0.032775 1.187668 0.099554
0.032950 1.186378 0.098835
0.032084 1.184335 0.098913
0.031651 1.183313 0.098952
0.031824 1.182018 0.098234
0.031562 1.179697 0.097555
0.031128 1.178673 0.097594
0.030864 1.176347 0.096915
0.030430 1.175322 0.096954
0.030598 1.174017 0.096236
0.029729 1.171965 0.096315
0.029896 1.170656 0.095597
0.029626 1.168317 0.094918
0.029191 1.167289 0.094958
0.028919 1.164945 0.094279
0.028483 1.163916 0.094319
0.028646 1.162596 0.093601
0.027772 1.160537 0.093680
0.027933 1.159213 0.092963
0.027656 1.156856 0.092285
0.027219 1.155824 0.092324
0.026940 1.153461 0.091647
0.027097 1.152129 0.090929
0.026658 1.151095 0.090969
0.026376 1.148724 0.090292
0.026530 1.147385 0.089575
0.025652 1.145314 0.089654
0.025805 1.143971 0.088938
0.090767 1.256585 0.064549
0.068144 1.261072 0.090529
0.056216 1.263563 0.104279
0.048984 1.263519 0.111973
0.047286 1.262917 0.113534
0.046440 1.260922 0.113611
0.046653 1.259723 0.112887
0.046442 1.257523 0.112203
0.046653 1.256319 0.111480
0.046229 1.255319 0.111518
0.046014 1.253110 0.110834
0.045589 1.252109 0.110872
0.045372 1.249895 0.110188
0.044947 1.248893 0.110227
0.044728 1.246675 0.109542
0.044933 1.245456 0.108820
0.044507 1.244452 0.108859
0.044285 1.242225 0.108175
0.043859 1.241220 0.108214
0.043634 1.238988 0.107530
0.043207 1.237982 0.107569
0.043408 1.236753 0.106847
0.042553 1.234738 0.106924
0.042126 1.233730 0.106963
0.041897 1.231487 0.106280
0.041469 1.230479 0.106318
0.041238 1.228231 0.105636
0.040810 1.227222 0.105674
0.041004 1.225979 0.104953
0.040770 1.223723 0.104270
0.040341 1.222712 0.104309
0.039483 1.220689 0.104387
0.039674 1.219438 0.103666
0.038816 1.217413 0.103743
0.039005 1.216159 0.103022
0.038576 1.215145 0.103061
0.024818 1.141852 0.087415
0.024378 1.140814 0.087455
0.024527 1.139465 0.086738
0.023647 1.137388 0.086817
0.023795 1.136035 0.086100
0.022913 1.133955 0.086180
0.023059 1.132598 0.085463
0.022177 1.130517 0.085543
0.022321 1.129156 0.084826
0.021879 1.128114 0.084866
0.021580 1.125707 0.084189
0.021722 1.124340 0.083472
0.021420 1.121926 0.082796
0.021560 1.120554 0.082079
0.021116 1.119508 0.082120
0.020811 1.117086 0.081443
0.021529 1.115377 0.079971
0.021220 1.112946 0.079295
0.021355 1.111561 0.078579
0.020464 1.109459 0.078659
0.020596 1.108071 0.077944
0.021306 1.106343 0.076472
0.019836 1.104575 0.077309
0.019966 1.103181 0.076593
0.019648 1.100729 0.075918
0.019201 1.099674 0.075958
0.018881 1.097218 0.075284
0.018433 1.096161 0.075324
0.017985 1.095105 0.075365
0.018236 1.092293 0.073934
0.037651 1.213131 0.101553
0.037837 1.211870 0.100831
0.036976 1.209839 0.100909
0.036545 1.208824 0.100948
0.036298 1.206542 0.100266
0.036481 1.205273 0.099544
0.036050 1.204255 0.099584
0.035800 1.201965 0.098902
0.035368 1.200947 0.098941
0.035115 1.198652 0.098259
0.034683 1.197632 0.098298
0.034429 1.195332 0.097616
0.033996 1.194311 0.097655
0.034172 1.193027 0.096935
0.033306 1.190984 0.097013
0.033481 1.189696 0.096293
0.032614 1.187651 0.096371
0.032787 1.186359 0.095651
0.032353 1.185336 0.095690
0.032090 1.183016 0.095009
0.031656 1.181991 0.095048
0.031391 1.179667 0.094368
0.031559 1.178365 0.093648
0.030689 1.176311 0.093727
0.030856 1.175006 0.093007
0.030420 1.173978 0.093046
0.030150 1.171640 0.092366
0.029714 1.170611 0.092405
0.029441 1.168269 0.091725
0.029604 1.166953 0.091006
0.028730 1.164891 0.091085
0.028891 1.163571 0.090366
0.028453 1.162539 0.090405
0.028175 1.160183 0.089726
0.028333 1.158857 0.089007
0.027457 1.156789 0.089086
0.027614 1.155459 0.088367
0.027330 1.153091 0.087688
0.026891 1.152055 0.087728
0.027045 1.150719 0.087009
0.026759 1.148343 0.086330
0.026319 1.147305 0.086370
0.026030 1.144924 0.085692
0.025589 1.143885 0.085732
0.025739 1.142538 0.085013
0.025447 1.140149 0.084335
0.025005 1.139108 0.084375
0.024711 1.136714 0.083697
0.024857 1.135358 0.082979
0.023973 1.133272 0.083059
0.024117 1.131913 0.082341
0.023674 1.130869 0.082381
0.023374 1.128461 0.081704
0.023516 1.127095 0.080986
0.023213 1.124681 0.080309
0.022769 1.123634 0.080349
0.022464 1.121214 0.079672
0.022601 1.119839 0.078955
0.022738 1.118462 0.078238
0.021848 1.116362 0.078318
0.022564 1.114651 0.076844
0.021672 1.112547 0.076925
0.021805 1.111161 0.076208
0.021490 1.108719 0.075532
0.021043 1.107665 0.075572
0.021174 1.106273 0.074856
0.020856 1.103822 0.074180
0.020984 1.102425 0.073463
0.020088 1.100311 0.073545
0.020214 1.098910 0.072828
0.019317 1.096794 0.072910
0.018869 1.095736 0.072950
0.018420 1.094678 0.072991
0.087421 1.257701 0.065109
0.067397 1.261401 0.088091
0.056767 1.263492 0.100344
0.048910 1.263633 0.108818
0.048485 1.262632 0.108856
0.047636 1.260629 0.108933
0.047212 1.259628 0.108971
0.046363 1.257625 0.109048
0.046572 1.256420 0.108324
0.046147 1.255417 0.108362
0.045929 1.253205 0.107676
0.045503 1.252202 0.107715
0.045283 1.249985 0.107029
0.044858 1.248980 0.107068
0.045062 1.247764 0.106344
0.044838 1.245539 0.105658
0.044412 1.244532 0.105697
0.044186 1.242302 0.105012
0.043759 1.241295 0.105050
0.043531 1.239059 0.104365
0.043104 1.238051 0.104404
0.043302 1.236820 0.103681
0.042446 1.234801 0.103758
0.042018 1.233792 0.103797
0.041785 1.231545 0.103112
0.041980 1.230307 0.102389
0.041122 1.228284 0.102467
0.041315 1.227041 0.101744
0.040886 1.226028 0.101783
0.040648 1.223769 0.101098
0.040218 1.222755 0.101137
0.039359 1.220728 0.101215
0.039548 1.219476 0.100492
0.039305 1.217206 0.099809
0.038875 1.216191 0.099848
0.038444 1.215175 0.099887
0.038199 1.212899 0.099203
0.037768 1.211883 0.099242
0.037521 1.209602 0.098559
0.037090 1.208585 0.098598
0.036841 1.206299 0.097915
0.037022 1.205028 0.097193
0.036590 1.204009 0.097232
0.036337 1.201715 0.096550
0.036516 1.200439 0.095828
0.035650 1.198395 0.095906
0.035827 1.197115 0.095185
0.035393 1.196092 0.095224
0.035135 1.193785 0.094542
0.034701 1.192762 0.094581
0.034441 1.190449 0.093899
0.034006 1.189425 0.093938
0.033744 1.187107 0.093256
0.033309 1.186082 0.093296
0.033479 1.184786 0.092575
0.032609 1.182733 0.092654
0.032778 1.181433 0.091933
0.031906 1.179378 0.092011
0.032073 1.178074 0.091291
0.031201 1.176017 0.091370
0.031367 1.174709 0.090649
0.031531 1.173399 0.089929
0.030657 1.171338 0.090008
0.030820 1.170024 0.089287
0.029945 1.167960 0.089367
0.030107 1.166642 0.088646
0.029828 1.164289 0.087966
0.029390 1.163255 0.088006
0.029549 1.161931 0.087286
0.028671 1.159861 0.087365
0.028828 1.158533 0.086645
0.028545 1.156167 0.085965
0.028699 1.154834 0.085246
0.028259 1.153796 0.085286
0.027972 1.151421 0.084606
0.028124 1.150082 0.083887
0.027243 1.148002 0.083966
0.027393 1.146659 0.083247
0.026511 1.144577 0.083327
0.026659 1.143230 0.082608
0.026807 1.141881 0.081889
0.026512 1.139485 0.081210
0.026069 1.138442 0.081250
0.025771 1.136041 0.080572
0.025328 1.134996 0.080612
0.025028 1.132591 0.079933
0.024585 1.131545 0.079973
0.024727 1.130182 0.079255
0.024423 1.127768 0.078577
0.024563 1.126400 0.077859
0.023674 1.124302 0.077939
0.023812 1.122929 0.077221
0.023503 1.120504 0.076543
0.023058 1.119453 0.076584
0.088621 1.257395 0.061953
0.069889 1.260694 0.083432
0.057358 1.263360 0.097991
0.049507 1.263494 0.106474
0.049081 1.262491 0.106512
0.048231 1.260484 0.106589
0.047805 1.259481 0.106628
0.047380 1.258477 0.106666
0.047162 1.256267 0.105979
0.046736 1.255262 0.106018
0.046516 1.253047 0.105331
0.046720 1.251833 0.104606
0.045867 1.249820 0.104684
0.046070 1.248603 0.103959
0.045643 1.247596 0.103997
0.045417 1.245367 0.103311
0.044989 1.244358 0.103350
0.044761 1.242124 0.102664
0.044333 1.241115 0.102703
0.044103 1.238876 0.102017
0.043675 1.237865 0.102056
0.043871 1.236633 0.101332
0.043014 1.234610 0.101409
0.043208 1.233373 0.100685
0.042350 1.231348 0.100763
0.042543 1.230108 0.100039
0.041684 1.228080 0.100117
0.041875 1.226836 0.099393
0.041445 1.225821 0.099432
0.041204 1.223558 0.098747
0.040774 1.222542 0.098786
0.040531 1.220274 0.098102
0.040100 1.219257 0.098141
0.040287 1.218002 0.097417
0.039424 1.215966 0.097496
0.039609 1.214706 0.096772
0.038746 1.212669 0.096851
0.038929 1.211405 0.096127
0.038064 1.209366 0.096206
0.038246 1.208098 0.095483
0.038426 1.206828 0.094760
0.037560 1.204785 0.094838
0.037739 1.203511 0.094116
0.036872 1.201465 0.094194
0.037049 1.200187 0.093472
0.036181 1.198140 0.093550
0.036357 1.196858 0.092828
0.035922 1.195833 0.092867
0.035662 1.193522 0.092184
0.035834 1.192234 0.091462
0.022484 1.118342 0.075009
0.022172 1.115908 0.074331
0.022304 1.114525 0.073612
0.021411 1.112417 0.073693
0.022119 1.110696 0.072216
0.021672 1.109640 0.072256
0.021352 1.107191 0.071579
0.021480 1.105797 0.070861
0.021158 1.103341 0.070183
0.020709 1.102282 0.070224
0.019811 1.100164 0.070305
0.019936 1.098761 0.069587
0.018913 1.098045 0.070387
0.018587 1.095581 0.069710
0.018710 1.094173 0.068992
0.088543 1.257474 0.060323
0.072814 1.261029 0.078725
0.060489 1.262451 0.092574
0.051370 1.262964 0.102596
0.050309 1.262154 0.103400
0.049456 1.260141 0.103477
0.034273 1.190442 0.090705
0.033837 1.189415 0.090744
0.033572 1.187094 0.090061
0.033136 1.186067 0.090100
0.033908 1.184500 0.088615
0.033035 1.182441 0.088694
0.032599 1.181411 0.088734
0.032328 1.179077 0.088051
0.032492 1.177771 0.087329
0.031617 1.175707 0.087408
0.031180 1.174675 0.087448
0.031342 1.173364 0.086726
0.031065 1.171017 0.086043
0.030627 1.169983 0.086083
0.030348 1.167631 0.085401
0.029910 1.166596 0.085441
0.030068 1.165275 0.084719
0.029189 1.163203 0.084798
0.029346 1.161878 0.084077
0.029061 1.159513 0.083395
0.029215 1.158182 0.082674
0.028334 1.156104 0.082754
0.028487 1.154770 0.082032
0.028638 1.153433 0.081311
0.027756 1.151352 0.081391
0.027906 1.150011 0.080670
0.027023 1.147927 0.080750
0.027171 1.146582 0.080029
0.026875 1.144192 0.079349
0.027022 1.142842 0.078628
0.026579 1.141797 0.078668
0.026280 1.139398 0.077988
0.025836 1.138353 0.078028
0.025536 1.135949 0.077348
0.025677 1.134589 0.076628
0.024789 1.132493 0.076708
0.024929 1.131129 0.075988
0.024484 1.130080 0.076028
0.024178 1.127663 0.075349
0.024315 1.126293 0.074629
0.023424 1.124191 0.074710
0.023560 1.122817 0.073990
0.023248 1.120388 0.073311
0.022802 1.119335 0.073351
0.022935 1.117955 0.072632
0.022620 1.115518 0.071953
0.022751 1.114133 0.071234
0.022433 1.111688 0.070555
0.022562 1.110298 0.069836
0.022690 1.108906 0.069117
0.021792 1.106788 0.069198
0.021918 1.105391 0.068480
0.021594 1.102932 0.067801
0.021144 1.101871 0.067842
0.020817 1.099406 0.067164
0.020367 1.098344 0.067205
0.019917 1.097282 0.067246
0.019016 1.095158 0.067328
0.019137 1.093748 0.066609
0.048351 1.259390 0.102696
0.047924 1.258384 0.102735
0.047071 1.256371 0.102812
0.047275 1.255160 0.102085
0.046421 1.253145 0.102162
0.046623 1.251930 0.101436
0.045768 1.249913 0.101513
0.045969 1.248695 0.100787
0.045541 1.247685 0.100825
0.045312 1.245453 0.100138
0.045510 1.244228 0.099412
0.044653 1.242205 0.099489
0.044849 1.240976 0.098763
0.043991 1.238951 0.098841
0.043561 1.237938 0.098880
0.043756 1.236704 0.098154
0.042896 1.234677 0.098232
0.043089 1.233439 0.097506
0.042229 1.231410 0.097584
0.042420 1.230168 0.096859
0.041989 1.229152 0.096898
0.041748 1.226890 0.096211
0.041936 1.225642 0.095486
0.041073 1.223607 0.095564
0.040642 1.222589 0.095603
0.040396 1.220317 0.094917
0.040581 1.219061 0.094192
0.040149 1.218041 0.094231
0.039900 1.215761 0.093545
0.039467 1.214741 0.093585
0.039216 1.212456 0.092899
0.038783 1.211434 0.092938
0.038529 1.209144 0.092253
0.038096 1.208121 0.092292
0.038274 1.206850 0.091568
0.037406 1.204803 0.091646
0.037583 1.203527 0.090922
0.037324 1.201224 0.090237
0.036889 1.200198 0.090277
0.036628 1.197890 0.089592
0.036192 1.196863 0.089631
0.036365 1.195577 0.088908
0.035494 1.193522 0.088987
0.035664 1.192232 0.088263
0.035397 1.189911 0.087579
0.034961 1.188881 0.087618
0.034088 1.186821 0.087697
0.034255 1.185524 0.086974
0.034421 1.184224 0.086250
0.033547 1.182160 0.086330
0.033711 1.180856 0.085607
0.033437 1.178517 0.084923
0.032999 1.177483 0.084963
0.032560 1.176449 0.085002
0.032283 1.174103 0.084319
0.032444 1.172789 0.083597
0.031565 1.170717 0.083676
0.031724 1.169399 0.082953
0.030845 1.167326 0.083033
0.031002 1.166003 0.082310
0.031158 1.164679 0.081588
0.030277 1.162602 0.081668
0.029837 1.161563 0.081708
0.029550 1.159194 0.081025
0.029702 1.157861 0.080303
0.029413 1.155485 0.079621
0.028971 1.154443 0.079661
0.029121 1.153105 0.078939
0.028828 1.150721 0.078258
0.028975 1.149377 0.077536
0.028090 1.147287 0.077616
0.028236 1.145940 0.076895
0.027349 1.143848 0.076975
0.027493 1.142497 0.076254
0.027637 1.141143 0.075532
0.026749 1.139047 0.075613
0.026890 1.137690 0.074892
0.026001 1.135592 0.074972
0.026141 1.134230 0.074251
0.025696 1.133180 0.074292
0.025389 1.130764 0.073611
0.025527 1.129397 0.072891
0.024635 1.127293 0.072971
0.024771 1.125921 0.072251
0.024459 1.123493 0.071571
0.024012 1.122439 0.071611
0.024146 1.121061 0.070891
0.023830 1.118625 0.070211
0.023383 1.117569 0.070252
0.023065 1.115128 0.069572
0.023195 1.113741 0.068852
0.022874 1.111293 0.068173
0.023002 1.109901 0.067453
0.022552 1.108841 0.067494
0.022229 1.106385 0.066815
0.022353 1.104987 0.066095
0.022026 1.102524 0.065416
0.021576 1.101460 0.065457
0.020674 1.099334 0.065539
0.020796 1.097928 0.064820
0.020344 1.096864 0.064861
0.018872 1.095081 0.065702
0.088382 1.257633 0.057057
0.073320 1.260981 0.074732
0.060383 1.262582 0.089378
0.051280 1.263084 0.099422
0.050219 1.262272 0.100227
0.049364 1.260255 0.100304
0.048937 1.259246 0.100343
0.048509 1.258238 0.100382
0.048285 1.256018 0.099693
0.047857 1.255008 0.099732
0.047630 1.252783 0.099043
0.047202 1.251773 0.099082
0.046973 1.249542 0.098393
0.046544 1.248531 0.098432
0.046743 1.247308 0.097705
0.045884 1.245283 0.097783
0.046081 1.244057 0.097056
0.045221 1.242029 0.097134
0.045416 1.240799 0.096407
0.044986 1.239784 0.096446
0.044749 1.237535 0.095758
0.044319 1.236519 0.095797
0.044080 1.234265 0.095110
0.043649 1.233248 0.095149
0.043407 1.230989 0.094461
0.042976 1.229971 0.094500
0.043164 1.228725 0.093774
0.042301 1.226688 0.093852
0.042488 1.225438 0.093126
0.041623 1.223399 0.093205
0.041808 1.222145 0.092479
0.040943 1.220104 0.092557
0.041126 1.218845 0.091831
0.040693 1.217824 0.091871
0.040441 1.215540 0.091184
0.040008 1.214517 0.091223
0.039754 1.212228 0.090537
0.039320 1.211205 0.090577
0.039065 1.208911 0.089891
0.039242 1.207639 0.089165
0.038807 1.206613 0.089205
0.038548 1.204311 0.088519
0.038112 1.203284 0.088558
0.037851 1.200977 0.087873
0.038024 1.199695 0.087148
0.037588 1.198666 0.087188
0.037323 1.196351 0.086502
0.036887 1.195321 0.086542
0.036619 1.193001 0.085857
0.036183 1.191970 0.085897
0.035913 1.189645 0.085212
0.035476 1.188613 0.085251
0.035643 1.187315 0.084527
0.034767 1.185250 0.084606
0.034932 1.183948 0.083882
0.034657 1.181610 0.083198
0.034218 1.180575 0.083238
0.033942 1.178231 0.082554
0.033502 1.177196 0.082594
0.033663 1.175884 0.081870
0.032784 1.173810 0.081949
0.032943 1.172494 0.081226
0.032660 1.170138 0.080542
0.032220 1.169099 0.080582
0.019414 1.093248 0.062595
0.088935 1.257522 0.054654
0.073253 1.261054 0.073116
0.060962 1.262455 0.087010
0.052499 1.262754 0.096297
0.052070 1.261741 0.096336
0.051009 1.260926 0.097142
0.049520 1.259103 0.097987
0.049722 1.257892 0.097259
0.048865 1.255869 0.097336
0.048436 1.254857 0.097375
0.048207 1.252628 0.096686
0.047778 1.251616 0.096725
0.047976 1.250395 0.095997
0.047117 1.248368 0.096074
0.047314 1.247144 0.095347
0.046453 1.245115 0.095425
0.046648 1.243886 0.094697
0.046412 1.241639 0.094008
0.045981 1.240623 0.094047
0.046173 1.239388 0.093320
0.031235 1.167001 0.079051
0.030794 1.165962 0.079091
0.030948 1.164636 0.078368
0.030065 1.162554 0.078447
0.030218 1.161224 0.077724
0.029927 1.158850 0.077040
0.029485 1.157807 0.077080
0.029192 1.155427 0.076396
0.029340 1.154088 0.075673
0.028897 1.153044 0.075713
0.028600 1.150656 0.075030
0.028746 1.149311 0.074307
0.027858 1.147217 0.074387
0.028003 1.145868 0.073664
0.028146 1.144517 0.072941
0.027256 1.142419 0.073021
0.027398 1.141064 0.072299
0.026507 1.138964 0.072379
0.026647 1.137605 0.071656
0.025756 1.135503 0.071737
0.025894 1.134140 0.071015
0.026031 1.132774 0.070292
0.025138 1.130668 0.070373
0.025274 1.129299 0.069651
0.024961 1.126873 0.068969
0.024514 1.125818 0.069010
0.024199 1.123387 0.068328
0.023751 1.122330 0.068368
0.023882 1.120951 0.067647
0.023564 1.118512 0.066965
0.023693 1.117127 0.066244
0.023371 1.114681 0.065563
0.022922 1.113621 0.065603
0.022599 1.111169 0.064923
0.022724 1.109775 0.064201
0.022848 1.108380 0.063480
0.022520 1.105918 0.062800
0.022069 1.104854 0.062841
0.021167 1.102726 0.062922
0.021287 1.101322 0.062201
0.020384 1.099192 0.062283
0.020503 1.097784 0.061562
0.020622 1.096374 0.060841
0.019148 1.094585 0.061685
0.018695 1.093519 0.061726
0.044625 1.237612 0.092569
0.044815 1.236373 0.091841
0.043951 1.234336 0.091919
0.043520 1.233317 0.091958
0.043275 1.231055 0.091269
0.042843 1.230035 0.091308
0.043029 1.228787 0.090581
0.042782 1.226516 0.089892
0.042349 1.225495 0.089931
0.042099 1.223219 0.089243
0.041665 1.222196 0.089282
0.041413 1.219915 0.088594
0.040979 1.218891 0.088633
0.041159 1.217629 0.087906
0.040290 1.215580 0.087985
0.040469 1.214314 0.087258
0.039599 1.212263 0.087336
0.039776 1.210993 0.086609
0.039341 1.209966 0.086649
0.039081 1.207666 0.085962
0.039255 1.206390 0.085235
0.038383 1.204333 0.085314
0.038555 1.203053 0.084587
0.037682 1.200993 0.084666
0.037853 1.199709 0.083940
0.038023 1.198424 0.083214
0.037148 1.196360 0.083293
0.037316 1.195070 0.082567
0.036440 1.193004 0.082646
0.036607 1.191710 0.081920
0.035730 1.189643 0.081999
0.035895 1.188345 0.081273
0.035457 1.187310 0.081313
0.034579 1.185240 0.081393
0.034742 1.183937 0.080667
0.034464 1.181595 0.079981
0.034624 1.180287 0.079256
0.033745 1.178211 0.079335
0.033903 1.176899 0.078610
0.033463 1.175860 0.078650
0.033179 1.173505 0.077965
0.033336 1.172187 0.077240
0.032453 1.170105 0.077320
0.032608 1.168783 0.076595
0.031724 1.166699 0.076675
0.031877 1.165372 0.075950
0.031435 1.164330 0.075990
0.031144 1.161956 0.075305
0.031294 1.160624 0.074581
0.030408 1.158534 0.074661
0.030556 1.157197 0.073937
0.030704 1.155859 0.073212
0.029816 1.153765 0.073293
0.029962 1.152422 0.072569
0.029662 1.150028 0.071885
0.029218 1.148979 0.071925
0.028916 1.146581 0.071241
0.029058 1.145229 0.070518
0.028612 1.144178 0.070558
0.028307 1.141771 0.069875
0.028447 1.140413 0.069151
0.027554 1.138307 0.069232
0.027107 1.137254 0.069272
0.026798 1.134837 0.068590
0.026934 1.133471 0.067866
0.026487 1.132416 0.067907
0.026174 1.129991 0.067224
0.026307 1.128619 0.066501
0.025411 1.126505 0.066582
0.025542 1.125129 0.065860
0.024645 1.123013 0.065941
0.024775 1.121633 0.065218
0.024904 1.120251 0.064496
0.024006 1.118131 0.064577
0.024133 1.116744 0.063854
0.023809 1.114294 0.063173
0.023934 1.112903 0.062450
0.023033 1.110777 0.062532
0.023157 1.109381 0.061810
0.023279 1.107984 0.061088
0.022949 1.105518 0.060407
0.022497 1.104452 0.060448
0.022165 1.101982 0.059767
0.021712 1.100914 0.059808
0.021831 1.099507 0.059086
0.020925 1.097371 0.059168
0.020472 1.096302 0.059209
0.018998 1.094511 0.060054
0.089398 1.257494 0.050607
0.075647 1.260438 0.066801
0.061479 1.262396 0.083033
0.053030 1.262683 0.092340
0.051968 1.261863 0.093148
0.050907 1.261046 0.093956
0.050048 1.259019 0.094034
0.049618 1.258006 0.094073
0.048759 1.255978 0.094151
0.048957 1.254762 0.093421
0.048097 1.252733 0.093499
0.047667 1.251718 0.093538
0.047863 1.250496 0.092808
0.047628 1.248256 0.092117
0.047197 1.247239 0.092156
0.046959 1.244993 0.091466
0.046528 1.243976 0.091505
0.046288 1.241725 0.090815
0.045856 1.240707 0.090854
0.046046 1.239471 0.090125
0.045803 1.237212 0.089435
0.045371 1.236191 0.089475
0.045125 1.233927 0.088785
0.044692 1.232906 0.088824
0.044444 1.230637 0.088135
0.044011 1.229614 0.088174
0.044195 1.228364 0.087446
0.043327 1.226317 0.087524
0.042893 1.225293 0.087564
0.042641 1.223013 0.086874
0.042207 1.221988 0.086914
0.042387 1.220729 0.086186
0.042131 1.218441 0.085497
0.041696 1.217414 0.085536
0.041438 1.215121 0.084848
0.041003 1.214093 0.084887
0.040742 1.211795 0.084199
0.040306 1.210767 0.084239
0.040481 1.209493 0.083511
0.040217 1.207187 0.082823
0.039780 1.206156 0.082863
0.039515 1.203845 0.082175
0.039077 1.202813 0.082214
0.038810 1.200496 0.081527
0.038372 1.199464 0.081567
0.038540 1.198176 0.080840
0.037664 1.196108 0.080919
0.037830 1.194817 0.080192
0.037557 1.192487 0.079505
0.037118 1.191451 0.079545
0.036842 1.189117 0.078858
0.036403 1.188080 0.078898
0.036565 1.186778 0.078171
0.035685 1.184702 0.078251
0.035846 1.183396 0.077524
0.034965 1.181319 0.077604
0.035124 1.180009 0.076878
0.034841 1.177656 0.076192
0.034400 1.176615 0.076232
0.034556 1.175299 0.075506
0.033673 1.173215 0.075586
0.033827 1.171895 0.074860
0.033538 1.169529 0.074174
0.033096 1.168485 0.074214
0.033248 1.167159 0.073489
0.032362 1.165069 0.073569
0.032512 1.163739 0.072844
0.032218 1.161360 0.072158
0.031774 1.160313 0.072199
0.031478 1.157928 0.071514
0.031624 1.156589 0.070789
0.031179 1.155540 0.070829
0.030879 1.153148 0.070144
0.031023 1.151802 0.069419
0.030132 1.149700 0.069500
0.030274 1.148351 0.068775
0.029382 1.146247 0.068856
0.029523 1.144893 0.068132
0.091842 1.256817 0.045885
0.077471 1.259941 0.062866
0.062682 1.262079 0.079886
0.054869 1.262161 0.088433
0.053176 1.261534 0.090012
0.052115 1.260713 0.090821
0.051253 1.258680 0.090899
0.050193 1.257863 0.091708
0.049960 1.255630 0.091016
0.049529 1.254614 0.091055
0.048667 1.252580 0.091133
0.048862 1.251358 0.090403
0.048431 1.250340 0.090442
0.048193 1.248096 0.089751
0.047761 1.247077 0.089790
0.047521 1.244828 0.089099
0.047089 1.243808 0.089138
0.046846 1.241554 0.088447
0.046414 1.240533 0.088486
0.046602 1.239295 0.087757
0.046357 1.237033 0.087066
0.045923 1.236010 0.087105
0.045675 1.233743 0.086415
0.045241 1.232719 0.086454
0.045426 1.231471 0.085725
0.044557 1.229422 0.085804
0.044123 1.228397 0.085843
0.043870 1.226118 0.085153
0.044051 1.224862 0.084424
0.043181 1.222809 0.084503
0.043360 1.221549 0.083774
0.042924 1.220521 0.083813
0.042666 1.218229 0.083124
0.042843 1.216963 0.082395
0.028367 1.144108 0.067314
0.028059 1.141698 0.066629
0.028196 1.140338 0.065904
0.027302 1.138228 0.065985
0.027437 1.136865 0.065260
0.026542 1.134753 0.065341
0.026675 1.133385 0.064616
0.026227 1.132328 0.064657
0.025911 1.129900 0.063973
0.025463 1.128841 0.064013
0.025144 1.126408 0.063330
0.025274 1.125030 0.062605
0.024375 1.122910 0.062687
0.024503 1.121528 0.061962
0.024630 1.120145 0.061238
0.023729 1.118021 0.061320
0.023854 1.116633 0.060596
0.023528 1.114179 0.059913
0.023651 1.112786 0.059189
0.023199 1.111721 0.059230
0.023442 1.108927 0.057782
0.023562 1.107528 0.057059
0.022656 1.105391 0.057141
0.022774 1.103987 0.056417
0.021868 1.101849 0.056499
0.021415 1.100780 0.056540
0.021531 1.099371 0.055817
0.020623 1.097230 0.055899
0.020738 1.095817 0.055176
0.020397 1.093330 0.054494
0.041276 1.215165 0.081635
0.041451 1.213895 0.080906
0.040577 1.211834 0.080985
0.040749 1.210560 0.080256
0.040312 1.209528 0.080296
0.040045 1.207218 0.079606
0.039608 1.206185 0.079646
0.039339 1.203871 0.078956
0.039507 1.202586 0.078228
0.038630 1.200517 0.078307
0.038796 1.199229 0.077578
0.038357 1.198193 0.077618
0.038083 1.195865 0.076930
0.037643 1.194828 0.076969
0.037367 1.192495 0.076281
0.036927 1.191457 0.076321
0.037089 1.190158 0.075592
0.036809 1.187816 0.074904
0.036368 1.186777 0.074944
0.036086 1.184430 0.074256
0.035645 1.183389 0.074296
0.035361 1.181038 0.073608
0.035517 1.179726 0.072880
0.035075 1.178683 0.072920
0.034787 1.176323 0.072233
0.034345 1.175279 0.072273
0.034055 1.172915 0.071585
0.034207 1.171592 0.070858
0.033320 1.169500 0.070938
0.033471 1.168174 0.070211
0.033027 1.167127 0.070251
0.032731 1.164749 0.069565
0.032879 1.163416 0.068838
0.031990 1.161318 0.068918
0.032136 1.159981 0.068191
0.031835 1.157592 0.067505
0.031390 1.156541 0.067545
0.031533 1.155198 0.066819
0.030641 1.153094 0.066899
0.030783 1.151747 0.066173
0.030477 1.149344 0.065487
0.030030 1.148290 0.065528
0.029722 1.145882 0.064842
0.029275 1.144827 0.064882
0.029412 1.143470 0.064156
0.029100 1.141053 0.063471
0.028652 1.139996 0.063512
0.028338 1.137575 0.062826
0.027890 1.136517 0.062867
0.028023 1.135150 0.062141
0.027125 1.133032 0.062223
0.027256 1.131660 0.061497
0.026937 1.129226 0.060813
0.026487 1.128165 0.060853
0.026166 1.125726 0.060169
0.025715 1.124663 0.060210
0.025843 1.123282 0.059484
0.025518 1.120835 0.058800
0.025643 1.119448 0.058075
0.024740 1.117318 0.058157
0.024288 1.116253 0.058198
0.023959 1.113795 0.057514
0.024080 1.112400 0.056790
0.024201 1.111004 0.056065
0.023867 1.108536 0.055382
0.023986 1.107134 0.054657
0.023078 1.104994 0.054740
0.023195 1.103588 0.054015
0.022287 1.101446 0.054098
0.021833 1.100374 0.054139
0.022516 1.098624 0.052650
0.021606 1.096478 0.052732
0.021719 1.095062 0.052008
0.072368 1.061562 -0.017517
0.090394 1.257364 0.044133
0.077315 1.260096 0.059607
0.063814 1.261833 0.075120
0.055187 1.263313 0.085190
0.053063 1.261660 0.086811
0.052002 1.260837 0.087622
0.051139 1.258800 0.087700
0.050080 1.257981 0.088510
0.049843 1.255744 0.087817
0.050038 1.254523 0.087085
0.049173 1.252484 0.087163
0.048741 1.251464 0.087202
0.048933 1.250238 0.086471
0.048068 1.248197 0.086549
0.048258 1.246966 0.085817
0.047392 1.244923 0.085896
0.047580 1.243689 0.085164
0.047147 1.242666 0.085203
0.046280 1.240621 0.085282
0.046466 1.239382 0.084550
0.046218 1.237116 0.083859
0.045783 1.236091 0.083898
0.045532 1.233820 0.083206
0.045097 1.232794 0.083246
0.045280 1.231545 0.082515
0.044409 1.229491 0.082593
0.044590 1.228238 0.081862
0.044333 1.225953 0.081171
0.043897 1.224925 0.081211
0.043638 1.222635 0.080520
0.043202 1.221606 0.080559
0.043378 1.220342 0.079829
0.042504 1.218280 0.079908
0.042679 1.217013 0.079178
0.041804 1.214949 0.079257
0.041977 1.213677 0.078527
0.041710 1.211370 0.077836
0.041272 1.210336 0.077876
0.041442 1.209058 0.077146
0.040565 1.206989 0.077226
0.040733 1.205707 0.076496
0.040461 1.203386 0.075806
0.040022 1.202349 0.075846
0.040188 1.201061 0.075116
0.039308 1.198986 0.075196
0.039472 1.197694 0.074467
0.038591 1.195616 0.074546
0.038754 1.194320 0.073817
0.038474 1.191981 0.073128
0.038033 1.190940 0.073168
0.038193 1.189638 0.072439
0.037309 1.187554 0.072519
0.037467 1.186248 0.071790
0.036583 1.184162 0.071870
0.036739 1.182852 0.071142
0.035854 1.180764 0.071222
0.036009 1.179450 0.070493
0.036163 1.178134 0.069765
0.035276 1.176042 0.069845
0.035428 1.174721 0.069117
0.034541 1.172628 0.069197
0.034691 1.171303 0.068469
0.034396 1.168928 0.067782
0.033951 1.167879 0.067822
0.034099 1.166548 0.067094
0.033209 1.164448 0.067175
0.033355 1.163114 0.066447
0.033054 1.160725 0.065760
0.032608 1.159673 0.065800
0.032306 1.157280 0.065113
0.032448 1.155936 0.064386
0.032001 1.154882 0.064426
0.031695 1.152480 0.063739
0.031247 1.151425 0.063780
0.030939 1.149019 0.063093
0.031077 1.147665 0.062366
0.030629 1.146608 0.062407
0.030317 1.144193 0.061721
0.030452 1.142833 0.060994
0.029554 1.140715 0.061075
0.029688 1.139351 0.060349
0.028789 1.137231 0.060430
0.028921 1.135863 0.059704
0.028472 1.134802 0.059744
0.028152 1.132368 0.059059
0.028281 1.130994 0.058333
0.027380 1.128868 0.058414
0.027508 1.127490 0.057688
0.026605 1.125362 0.057770
0.026731 1.123980 0.057044
0.026856 1.122595 0.056318
0.025953 1.120463 0.056400
0.092019 1.258148 0.040898
0.076604 1.260364 0.058748
0.065636 1.261328 0.071187
0.056387 1.262993 0.082040
0.054261 1.261334 0.083663
0.052572 1.260704 0.085247
0.051707 1.258662 0.085326
0.051274 1.257642 0.085365
0.050409 1.255600 0.085443
0.050601 1.254378 0.084710
0.050168 1.253356 0.084749
0.049926 1.251107 0.084056
0.049493 1.250085 0.084095
0.049248 1.247831 0.083402
0.048815 1.246807 0.083441
0.048568 1.244549 0.082748
0.048134 1.243524 0.082788
0.047699 1.242499 0.082827
0.047450 1.240235 0.082134
0.047015 1.239209 0.082174
0.046764 1.236939 0.081481
0.046947 1.235693 0.080749
0.046076 1.233637 0.080828
0.046257 1.232387 0.080096
0.045821 1.231359 0.080136
0.045564 1.229076 0.079443
0.045128 1.228046 0.079483
0.044869 1.225758 0.078791
0.044432 1.224727 0.078831
0.044171 1.222434 0.078139
0.044346 1.221169 0.077408
0.043908 1.220137 0.077447
0.043643 1.217835 0.076756
0.043205 1.216802 0.076796
0.042939 1.214495 0.076104
0.042500 1.213461 0.076144
0.042670 1.212185 0.075413
0.041792 1.210114 0.075493
0.041961 1.208834 0.074762
0.041689 1.206514 0.074071
0.041249 1.205477 0.074111
0.040974 1.203152 0.073421
0.041139 1.201863 0.072691
0.040698 1.200824 0.072730
0.040420 1.198491 0.072040
0.039979 1.197450 0.072080
0.039699 1.195112 0.071390
0.039257 1.194070 0.071430
0.025357 1.119346 0.054805
0.024452 1.117212 0.054887
0.024573 1.115820 0.054160
0.024240 1.113357 0.053475
0.023787 1.112287 0.053516
0.023905 1.110889 0.052790
0.023569 1.108418 0.052105
0.023685 1.107015 0.051379
0.023345 1.104537 0.050695
0.022890 1.103463 0.050736
0.022549 1.100980 0.050052
0.022661 1.099568 0.049326
0.022773 1.098153 0.048601
0.021294 1.096342 0.049450
0.021404 1.094924 0.048725
0.093816 1.257671 0.036926
0.079672 1.259493 0.053248
0.066194 1.261208 0.068794
0.057582 1.262675 0.078886
0.038273 1.191993 0.069891
0.037831 1.190950 0.069931
0.037989 1.189646 0.069200
0.037702 1.187296 0.068510
0.037259 1.186251 0.068550
0.036971 1.183895 0.067860
0.036528 1.182849 0.067900
0.036237 1.180489 0.067210
0.036389 1.179172 0.066480
0.035945 1.178124 0.066520
0.035651 1.175755 0.065831
0.035801 1.174432 0.065101
0.034910 1.172332 0.065181
0.035058 1.171005 0.064452
0.034167 1.168903 0.064532
0.034313 1.167572 0.063803
0.034458 1.166239 0.063074
0.033566 1.164133 0.063154
0.033119 1.163080 0.063195
0.032815 1.160688 0.062506
0.032957 1.159347 0.061777
0.032510 1.158292 0.061818
0.032203 1.155892 0.061129
0.032342 1.154545 0.060400
0.031446 1.152431 0.060481
0.031583 1.151079 0.059753
0.031271 1.148667 0.059065
0.030822 1.147608 0.059105
0.030957 1.146250 0.058377
0.030641 1.143830 0.057689
0.030191 1.142769 0.057730
0.029873 1.140343 0.057043
0.030004 1.138977 0.056314
0.029103 1.136851 0.056396
0.028652 1.135788 0.056437
0.028781 1.134416 0.055709
0.028457 1.131977 0.055022
0.028584 1.130601 0.054294
0.027680 1.128469 0.054376
0.027805 1.127088 0.053649
0.026900 1.124954 0.053731
0.027024 1.123569 0.053003
0.027146 1.122182 0.052276
0.026240 1.120044 0.052358
0.026360 1.118653 0.051631
0.025453 1.116513 0.051713
0.025572 1.115118 0.050986
0.025235 1.112649 0.050300
0.024210 1.111904 0.051109
0.024897 1.110176 0.049614
0.024558 1.107699 0.048929
0.024672 1.106293 0.048202
0.023760 1.104142 0.048285
0.023873 1.102732 0.047558
0.023984 1.101320 0.046832
0.023638 1.098828 0.046147
0.023748 1.097411 0.045421
0.022267 1.095593 0.046271
0.021810 1.094514 0.046313
0.054138 1.261465 0.080449
0.053077 1.260636 0.081262
0.051583 1.258786 0.082115
0.051150 1.257763 0.082154
0.050907 1.255517 0.081459
0.050473 1.254494 0.081498
0.050663 1.253267 0.080764
0.049794 1.251218 0.080842
0.049982 1.249987 0.080108
0.049112 1.247936 0.080187
0.049299 1.246701 0.079453
0.048428 1.244648 0.079532
0.047993 1.243621 0.079571
0.048177 1.242382 0.078838
0.047924 1.240111 0.078143
0.047488 1.239083 0.078183
0.046615 1.237025 0.078262
0.046796 1.235778 0.077528
0.046539 1.233497 0.076834
0.046102 1.232466 0.076874
0.046280 1.231213 0.076141
0.045405 1.229149 0.076220
0.045581 1.227891 0.075487
0.044706 1.225826 0.075566
0.044880 1.224564 0.074833
0.045054 1.223300 0.074100
0.044177 1.221230 0.074180
0.044349 1.219962 0.073447
0.043470 1.217891 0.073527
0.043641 1.216619 0.072794
0.042762 1.214545 0.072874
0.042930 1.213269 0.072141
0.043098 1.211991 0.071409
0.042217 1.209913 0.071489
0.042383 1.208631 0.070756
0.041502 1.206552 0.070836
0.041666 1.205266 0.070104
0.040783 1.203184 0.070184
0.040946 1.201893 0.069452
0.040504 1.200852 0.069492
0.040223 1.198515 0.068801
0.040383 1.197219 0.068069
0.039498 1.195131 0.068149
0.039656 1.193831 0.067418
0.038770 1.191741 0.067498
0.038927 1.190437 0.066767
0.039083 1.189130 0.066035
0.038195 1.187037 0.066116
0.038349 1.185726 0.065385
0.037460 1.183630 0.065465
0.037613 1.182316 0.064734
0.037168 1.181267 0.064775
0.036874 1.178899 0.064084
0.037024 1.177578 0.063353
0.036726 1.175204 0.062663
0.036280 1.174152 0.062704
0.035981 1.171772 0.062013
0.035535 1.170719 0.062054
0.035680 1.169388 0.061324
0.034786 1.167280 0.061405
0.034930 1.165946 0.060674
0.034625 1.163553 0.059985
0.034767 1.162213 0.059255
0.033870 1.160099 0.059336
0.033422 1.159042 0.059377
0.033562 1.157697 0.058647
0.033251 1.155291 0.057958
0.032802 1.154232 0.057999
0.032490 1.151821 0.057310
0.032040 1.150760 0.057350
0.031725 1.148344 0.056662
0.031859 1.146986 0.055932
0.031992 1.145626 0.055203
0.031091 1.143500 0.055285
0.031222 1.142136 0.054556
0.030320 1.140007 0.054638
0.030449 1.138639 0.053909
0.030126 1.136203 0.053221
0.029674 1.135137 0.053262
0.029801 1.133763 0.052533
0.029474 1.131318 0.051846
0.029021 1.130250 0.051887
0.028692 1.127800 0.051199
0.028239 1.126731 0.051240
0.028362 1.125347 0.050512
0.028029 1.122889 0.049825
0.027575 1.121818 0.049866
0.027241 1.119355 0.049179
0.026786 1.118283 0.049221
0.026449 1.115815 0.048534
0.025994 1.114742 0.048575
0.026111 1.113343 0.047847
0.025771 1.110867 0.047161
0.025886 1.109464 0.046433
0.024973 1.107311 0.046516
0.025655 1.105572 0.045020
0.024740 1.103415 0.045103
0.024283 1.102337 0.045144
0.024961 1.100588 0.043649
0.024045 1.098427 0.043732
0.024153 1.097008 0.043005
0.023236 1.094846 0.043088
0.094245 1.257660 0.032837
0.079500 1.259654 0.049969
0.067302 1.260972 0.063999
0.058079 1.262620 0.074887
0.055327 1.261142 0.077290
0.054265 1.260310 0.078104
0.052770 1.258454 0.078958
0.051710 1.257626 0.079772
0.051465 1.255377 0.079076
0.051654 1.254149 0.078341
0.051218 1.253123 0.078380
0.050970 1.250865 0.077684
0.050534 1.249837 0.077724
0.049663 1.247782 0.077803
0.049847 1.246545 0.077068
0.049595 1.244277 0.076373
0.049158 1.243248 0.076412
0.048722 1.242218 0.076452
0.048466 1.239944 0.075757
0.048647 1.238697 0.075023
0.047772 1.236634 0.075102
0.047951 1.235383 0.074368
0.047513 1.234350 0.074407
0.047252 1.232063 0.073713
0.047428 1.230807 0.072979
0.046550 1.228737 0.073059
0.046112 1.227702 0.073098
0.045846 1.225405 0.072404
0.045407 1.224369 0.072444
0.045580 1.223103 0.071710
0.045311 1.220798 0.071017
0.044871 1.219760 0.071057
0.044600 1.217450 0.070363
0.044160 1.216411 0.070403
0.043887 1.214095 0.069710
0.043446 1.213055 0.069750
0.043612 1.211775 0.069017
0.042730 1.209694 0.069097
0.042894 1.208410 0.068364
0.042616 1.206081 0.067671
0.042174 1.205038 0.067711
0.041893 1.202704 0.067018
0.041450 1.201660 0.067058
0.041610 1.200366 0.066326
0.041326 1.198024 0.065633
0.040883 1.196978 0.065674
0.040597 1.194631 0.064981
0.040153 1.193584 0.065022
0.040309 1.192280 0.064289
0.039420 1.190184 0.064370
0.039574 1.188876 0.063638
0.039282 1.186516 0.062946
0.038837 1.185466 0.062987
0.038543 1.183101 0.062295
0.038694 1.181783 0.061564
0.038248 1.180731 0.061604
0.037950 1.178358 0.060913
0.037504 1.177305 0.060953
0.037204 1.174927 0.060263
0.036757 1.173872 0.060303
0.036456 1.171489 0.059612
0.036600 1.170158 0.058881
0.020921 1.094722 0.043786
0.060480 1.069345 -0.010777
0.093514 1.257936 0.031952
0.080039 1.259546 0.047551
0.067852 1.260856 0.061596
0.058638 1.262498 0.072495
0.056511 1.260821 0.074126
0.054824 1.260180 0.075717
0.053327 1.258320 0.076571
0.052892 1.257292 0.076610
0.052020 1.255237 0.076689
0.052207 1.254008 0.075953
0.051771 1.252979 0.075993
0.051520 1.250718 0.075297
0.051084 1.249688 0.075336
0.050831 1.247421 0.074640
0.050394 1.246390 0.074680
0.050576 1.245150 0.073945
0.050320 1.242875 0.073249
0.049882 1.241843 0.073288
0.035441 1.169370 0.058061
0.035135 1.166979 0.057370
0.034687 1.165922 0.057411
0.034379 1.163525 0.056720
0.034518 1.162184 0.055988
0.034207 1.159781 0.055297
0.033758 1.158720 0.055338
0.033309 1.157660 0.055379
0.032995 1.155251 0.054688
0.033130 1.153899 0.053957
0.032814 1.151483 0.053267
0.032363 1.150419 0.053308
0.032044 1.147998 0.052618
0.032175 1.146637 0.051887
0.031724 1.145572 0.051928
0.031402 1.143142 0.051238
0.031530 1.141776 0.050507
0.030625 1.139641 0.050589
0.030752 1.138270 0.049859
0.030299 1.137202 0.049900
0.029972 1.134759 0.049211
0.029518 1.133690 0.049252
0.029189 1.131242 0.048563
0.029311 1.129861 0.047833
0.028403 1.127719 0.047915
0.028524 1.126334 0.047185
0.028069 1.125262 0.047226
0.027734 1.122800 0.046538
0.027852 1.121409 0.045808
0.026941 1.119261 0.045890
0.027058 1.117866 0.045161
0.026146 1.115715 0.045244
0.026261 1.114316 0.044514
0.026375 1.112915 0.043785
0.026031 1.110434 0.043097
0.026711 1.108700 0.041598
0.025795 1.106539 0.041681
0.025337 1.105459 0.041722
0.024988 1.102965 0.041035
0.024530 1.101884 0.041076
0.025203 1.100133 0.039578
0.024285 1.097966 0.039661
0.023825 1.096882 0.039702
0.022907 1.094716 0.039786
0.022448 1.093632 0.039827
0.048311 1.240039 0.072526
0.048489 1.238792 0.071790
0.047612 1.236724 0.071870
0.047789 1.235472 0.071134
0.047964 1.234218 0.070398
0.047699 1.231925 0.069702
0.047260 1.230888 0.069742
0.046381 1.228815 0.069822
0.046553 1.227553 0.069086
0.045673 1.225477 0.069166
0.045843 1.224211 0.068431
0.046013 1.222943 0.067696
0.045131 1.220863 0.067776
0.044690 1.219823 0.067816
0.044416 1.217509 0.067121
0.044582 1.216233 0.066386
0.043699 1.214149 0.066466
0.043863 1.212869 0.065731
0.044027 1.211586 0.064996
0.043142 1.209498 0.065077
0.042699 1.208454 0.065117
0.042418 1.206122 0.064422
0.042578 1.204832 0.063688
0.042134 1.203786 0.063728
0.041849 1.201445 0.063034
0.041405 1.200398 0.063074
0.041118 1.198053 0.062381
0.041274 1.196752 0.061647
0.040385 1.194654 0.061727
0.040539 1.193350 0.060993
0.040692 1.192043 0.060260
0.039801 1.189941 0.060340
0.039952 1.188630 0.059607
0.039060 1.186526 0.059688
0.039210 1.185212 0.058954
0.038317 1.183106 0.059035
0.038465 1.181787 0.058302
0.038613 1.180466 0.057569
0.037718 1.178356 0.057650
0.037864 1.177031 0.056917
0.036968 1.174919 0.056998
0.037112 1.173590 0.056265
0.036216 1.171476 0.056346
0.036358 1.170143 0.055614
0.036499 1.168808 0.054881
0.035601 1.166690 0.054963
0.035740 1.165350 0.054230
0.035429 1.162948 0.053538
0.034979 1.161887 0.053579
0.034666 1.159480 0.052888
0.034802 1.158132 0.052156
0.034351 1.157069 0.052196
0.034034 1.154653 0.051505
0.034167 1.153299 0.050774
0.033264 1.151169 0.050855
0.033395 1.149810 0.050124
0.032943 1.148744 0.050164
0.032621 1.146316 0.049474
0.032750 1.144951 0.048742
0.032424 1.142516 0.048052
0.031971 1.141446 0.048093
0.031644 1.139006 0.047403
0.031768 1.137632 0.046672
0.031314 1.136561 0.046713
0.030406 1.134418 0.046795
0.030529 1.133040 0.046064
0.029620 1.130895 0.046147
0.029741 1.129513 0.045416
0.029405 1.127054 0.044726
0.028950 1.125980 0.044768
0.029068 1.124591 0.044037
0.028157 1.122440 0.044120
0.028273 1.121048 0.043389
0.027933 1.118576 0.042701
0.027476 1.117498 0.042742
0.027133 1.115021 0.042053
0.027816 1.113296 0.040552
0.027358 1.112216 0.040593
0.027010 1.109728 0.039905
0.027120 1.108320 0.039175
0.026203 1.106155 0.039258
0.026311 1.104742 0.038529
0.025392 1.102575 0.038612
0.025499 1.101158 0.037882
0.025604 1.099739 0.037153
0.024684 1.097568 0.037236
0.024788 1.096145 0.036507
0.023867 1.093972 0.036590
0.022281 1.093567 0.038174
0.093934 1.257928 0.027851
0.077352 1.260465 0.047370
0.067068 1.261197 0.059112
0.059122 1.262448 0.068481
0.056371 1.260958 0.070892
0.054686 1.260314 0.072486
0.053189 1.258449 0.073342
0.052752 1.257419 0.073382
0.052938 1.256191 0.072644
0.052064 1.254130 0.072723
0.052248 1.252897 0.071986
0.051373 1.250834 0.072065
0.051555 1.249597 0.071328
0.050680 1.247532 0.071407
0.050860 1.246291 0.070670
0.050422 1.245257 0.070710
0.050162 1.242979 0.070013
0.049724 1.241944 0.070052
0.049462 1.239661 0.069356
0.049023 1.238625 0.069395
0.048759 1.236336 0.068698
0.048934 1.235081 0.067962
0.049107 1.233825 0.067226
0.048226 1.231747 0.067305
0.048398 1.230486 0.066569
0.047516 1.228406 0.066649
0.047076 1.227366 0.066689
0.046804 1.225060 0.065993
0.046972 1.223791 0.065257
0.046531 1.222749 0.065297
0.046256 1.220434 0.064601
0.045814 1.219391 0.064641
0.045536 1.217071 0.063946
0.045094 1.216027 0.063986
0.045258 1.214747 0.063250
0.044977 1.212419 0.062555
0.044534 1.211373 0.062595
0.044251 1.209040 0.061900
0.043807 1.207993 0.061940
0.043522 1.205655 0.061245
0.043078 1.204607 0.061285
0.043236 1.203313 0.060550
0.042947 1.200967 0.059856
0.042502 1.199917 0.059896
0.042212 1.197565 0.059202
0.041766 1.196514 0.059242
0.041474 1.194158 0.058548
0.041028 1.193106 0.058588
0.041179 1.191797 0.057854
0.040883 1.189433 0.057160
0.040437 1.188379 0.057200
0.040138 1.186009 0.056507
0.040286 1.184692 0.055773
0.039391 1.182580 0.055854
0.039537 1.181258 0.055120
0.039089 1.180201 0.055160
0.038785 1.177818 0.054467
0.038336 1.176760 0.054508
0.038030 1.174373 0.053815
0.038172 1.173041 0.053081
0.037723 1.171981 0.053122
0.037414 1.169585 0.052429
0.037553 1.168247 0.051696
0.036652 1.166123 0.051778
0.036790 1.164781 0.051045
0.035888 1.162655 0.051126
0.036024 1.161309 0.050393
0.035573 1.160245 0.050434
0.035256 1.157830 0.049742
0.035389 1.156479 0.049009
0.035069 1.154057 0.048318
0.034617 1.152990 0.048359
0.034294 1.150564 0.047667
0.033842 1.149496 0.047708
0.033970 1.148134 0.046976
0.033645 1.145699 0.046284
0.097587 1.256901 0.021516
0.079138 1.259982 0.043391
0.068236 1.260893 0.055924
0.059673 1.262329 0.066080
0.056923 1.260834 0.068494
0.055861 1.259993 0.069312
0.054362 1.258122 0.070169
0.053924 1.257089 0.070209
0.053487 1.256056 0.070249
0.053231 1.253790 0.069550
0.052793 1.252757 0.069590
0.052536 1.250485 0.068891
0.052097 1.249451 0.068931
0.051220 1.247381 0.069011
0.051399 1.246139 0.068273
0.051577 1.244894 0.067535
0.050698 1.242821 0.067615
0.050874 1.241572 0.066877
0.049994 1.239496 0.066957
0.050169 1.238244 0.066220
0.049288 1.236166 0.066299
0.049461 1.234910 0.065562
0.049633 1.233651 0.064825
0.049362 1.231349 0.064128
0.048921 1.230307 0.064168
0.048037 1.228223 0.064248
0.048206 1.226957 0.063511
0.048374 1.225688 0.062774
0.047489 1.223600 0.062854
0.047655 1.222327 0.062118
0.046769 1.220237 0.062198
0.046933 1.218961 0.061462
0.033050 1.144604 0.044680
0.032142 1.142462 0.044762
0.032266 1.141091 0.044029
0.031935 1.138645 0.043337
0.032057 1.137269 0.042605
0.031602 1.136195 0.042646
0.030691 1.134046 0.042728
0.030235 1.132972 0.042770
0.029899 1.130514 0.042079
0.030017 1.129129 0.041346
0.029105 1.126976 0.041429
0.029222 1.125587 0.040697
0.029337 1.124196 0.039965
0.028423 1.122040 0.040048
0.028537 1.120644 0.039316
0.027622 1.118486 0.039398
0.027734 1.117086 0.038667
0.027387 1.114604 0.037977
0.027498 1.113199 0.037245
0.027607 1.111793 0.036514
0.027256 1.109300 0.035824
0.027363 1.107889 0.035092
0.026443 1.105718 0.035176
0.026548 1.104302 0.034445
0.026088 1.103216 0.034486
0.025731 1.100710 0.033797
0.025834 1.099288 0.033066
0.025474 1.096775 0.032377
0.025012 1.095686 0.032419
0.024088 1.093507 0.032503
0.023065 1.092758 0.033317
0.045342 1.217135 0.060690
0.045504 1.215854 0.059953
0.045060 1.214807 0.059993
0.044776 1.212476 0.059296
0.044332 1.211428 0.059336
0.044046 1.209091 0.058640
0.044204 1.207800 0.057903
0.043313 1.205700 0.057984
0.043469 1.204406 0.057247
0.043024 1.203355 0.057287
0.042732 1.201005 0.056591
0.042286 1.199953 0.056632
0.041993 1.197598 0.055936
0.042144 1.196293 0.055200
0.041251 1.194185 0.055281
0.041401 1.192876 0.054545
0.041550 1.191565 0.053809
0.040654 1.189453 0.053890
0.040802 1.188138 0.053154
0.039905 1.186024 0.053235
0.040051 1.184705 0.052499
0.039602 1.183647 0.052540
0.039298 1.181266 0.051845
0.039441 1.179941 0.051110
0.038542 1.177820 0.051191
0.038683 1.176491 0.050456
0.037784 1.174369 0.050537
0.037923 1.173036 0.049802
0.038062 1.171700 0.049067
0.037748 1.169299 0.048373
0.037297 1.168235 0.048414
0.036395 1.166107 0.048496
0.036530 1.164763 0.047761
0.036213 1.162352 0.047067
0.035761 1.161285 0.047108
0.035894 1.159936 0.046374
0.035573 1.157516 0.045680
0.035120 1.156448 0.045721
0.034797 1.154024 0.045028
0.034343 1.152954 0.045069
0.034599 1.150233 0.043601
0.034726 1.148870 0.042867
0.034271 1.147797 0.042908
0.033362 1.145653 0.042991
0.033487 1.144284 0.042257
0.032577 1.142138 0.042339
0.032700 1.140765 0.041606
0.032366 1.138315 0.040913
0.031910 1.137240 0.040955
0.032030 1.135861 0.040221
0.031693 1.133403 0.039530
0.031236 1.132325 0.039571
0.030897 1.129862 0.038879
0.030440 1.128784 0.038921
0.030556 1.127395 0.038188
0.030213 1.124924 0.037496
0.030327 1.123530 0.036763
0.029410 1.121367 0.036846
0.028951 1.120286 0.036888
0.028604 1.117804 0.036197
0.028714 1.116402 0.035464
0.028255 1.115319 0.035506
0.027905 1.112829 0.034815
0.028012 1.111421 0.034083
0.027092 1.109250 0.034166
0.027764 1.107511 0.032661
0.027408 1.105007 0.031970
0.026946 1.103919 0.032012
0.027614 1.102169 0.030507
0.026689 1.099988 0.030591
0.026790 1.098564 0.029859
0.026427 1.096045 0.029169
0.025964 1.094952 0.029211
0.056457 1.073788 -0.014009
0.099862 1.256343 0.015051
0.078950 1.260149 0.040093
0.068067 1.261047 0.052652
0.060144 1.262284 0.062050
0.057395 1.260781 0.064469
0.055712 1.260131 0.066068
0.054834 1.258059 0.066148
0.053774 1.257220 0.066967
0.053956 1.255988 0.066227
0.053077 1.253916 0.066307
0.053257 1.252679 0.065567
0.052378 1.250606 0.065647
0.052556 1.249365 0.064907
0.052733 1.248122 0.064168
0.051852 1.246044 0.064248
0.051412 1.245005 0.064288
0.051146 1.242718 0.063588
0.050705 1.241678 0.063628
0.050437 1.239385 0.062929
0.050609 1.238130 0.062190
0.050167 1.237088 0.062230
0.049896 1.234787 0.061531
0.049454 1.233744 0.061571
0.049180 1.231438 0.060873
0.048738 1.230394 0.060913
0.048462 1.228083 0.060215
0.048019 1.227038 0.060255
0.048184 1.225768 0.059516
0.047905 1.223449 0.058818
0.047461 1.222402 0.058858
0.047180 1.220078 0.058161
0.047342 1.218799 0.057423
0.046452 1.216701 0.057503
0.046008 1.215652 0.057543
0.046167 1.214367 0.056806
0.045880 1.212030 0.056108
0.045435 1.210979 0.056149
0.045146 1.208637 0.055451
0.044700 1.207584 0.055492
0.044408 1.205237 0.054795
